ply
format ascii 1.0
element vertex 1166
property float x
property float y
property float z
property uchar red
property uchar green
property uchar blue
end_header
6.875000 4.000000 -6.712797 104 129 158 
6.937500 4.000000 -6.712797 104 128 157 
7.000000 4.000000 -6.712797 102 128 157 
7.062500 4.000000 -6.712797 102 127 155 
7.125000 4.000000 -6.712797 101 126 155 
7.187500 4.000000 -6.712797 101 126 155 
7.250000 4.000000 -6.712797 101 125 154 
7.312500 4.000000 -6.712797 98 124 152 
7.375000 4.000000 -6.712797 98 124 152 
7.437500 4.000000 -6.712797 98 122 151 
7.500000 4.000000 -6.712797 96 121 150 
7.562500 4.000000 -6.712797 96 121 149 
-0.920863 3.625899 -6.181569 152 178 205 
-0.863309 3.625899 -6.181569 152 178 205 
-0.750000 3.937500 -6.712797 153 178 206 
-0.687500 3.937500 -6.712797 152 178 206 
-0.625000 3.937500 -6.712797 152 178 206 
-0.562500 3.937500 -6.712797 152 178 206 
-0.500000 3.937500 -6.712797 152 178 206 
-0.437500 3.937500 -6.712797 152 178 206 
-0.375000 3.937500 -6.712797 152 179 206 
-0.312500 3.937500 -6.712797 153 180 207 
0.050000 3.150000 -5.370238 152 180 208 
0.100000 3.150000 -5.370238 153 180 208 
0.150000 3.150000 -5.370238 152 180 208 
0.687500 3.937500 -6.712797 152 179 207 
0.750000 3.937500 -6.712797 152 179 207 
0.812500 3.937500 -6.712797 151 178 207 
0.875000 3.937500 -6.712797 151 178 206 
0.937500 3.937500 -6.712797 151 178 206 
1.000000 3.937500 -6.712797 151 178 206 
1.062500 3.937500 -6.712797 150 178 206 
1.125000 3.937500 -6.712797 150 178 206 
1.187500 3.937500 -6.712797 149 178 206 
1.250000 3.937500 -6.712797 149 178 206 
1.312500 3.937500 -6.712797 150 178 206 
1.375000 3.937500 -6.712797 150 178 206 
1.437500 3.937500 -6.712797 149 177 205 
1.500000 3.937500 -6.712797 149 177 205 
1.562500 3.937500 -6.712797 148 176 205 
1.625000 3.937500 -6.712797 150 177 205 
1.687500 3.937500 -6.712797 150 176 204 
1.750000 3.937500 -6.712797 150 177 205 
1.812500 3.937500 -6.712797 149 176 204 
1.875000 3.937500 -6.712797 149 176 204 
1.937500 3.937500 -6.712797 148 175 203 
2.000000 3.937500 -6.712797 148 175 203 
2.062500 3.937500 -6.712797 147 175 203 
2.125000 3.937500 -6.712797 147 174 203 
2.187500 3.937500 -6.712797 147 174 203 
2.250000 3.937500 -6.712797 146 173 203 
2.312500 3.937500 -6.712797 146 173 202 
2.375000 3.937500 -6.712797 146 173 202 
2.437500 3.937500 -6.712797 146 173 202 
2.500000 3.937500 -6.712797 144 173 202 
2.562500 3.937500 -6.712797 144 172 202 
2.625000 3.937500 -6.712797 142 171 201 
2.687500 3.937500 -6.712797 142 170 201 
2.750000 3.937500 -6.712797 142 171 201 
2.812500 3.937500 -6.712797 141 170 201 
2.875000 3.937500 -6.712797 140 170 200 
2.937500 3.937500 -6.712797 140 170 200 
3.000000 3.937500 -6.712797 139 169 200 
3.062500 3.937500 -6.712797 138 168 199 
3.125000 3.937500 -6.712797 139 168 199 
3.187500 3.937500 -6.712797 138 168 199 
3.250000 3.937500 -6.712797 137 167 199 
3.312500 3.937500 -6.712797 137 167 199 
3.375000 3.937500 -6.712797 136 167 198 
3.437500 3.937500 -6.712797 137 167 198 
3.500000 3.937500 -6.712797 136 166 197 
3.562500 3.937500 -6.712797 135 165 197 
3.625000 3.937500 -6.712797 135 164 196 
3.687500 3.937500 -6.712797 134 164 196 
3.750000 3.937500 -6.712797 133 163 196 
3.812500 3.937500 -6.712797 133 163 196 
3.875000 3.937500 -6.712797 133 163 196 
3.937500 3.937500 -6.712797 133 163 194 
4.000000 3.937500 -6.712797 131 161 193 
4.062500 3.937500 -6.712797 131 160 192 
4.125000 3.937500 -6.712797 131 160 191 
4.187500 3.937500 -6.712797 130 160 191 
4.250000 3.937500 -6.712797 130 159 190 
4.312500 3.937500 -6.712797 129 158 190 
4.375000 3.937500 -6.712797 129 157 189 
5.062500 3.937500 -6.712797 130 153 180 
5.125000 3.937500 -6.712797 128 152 180 
5.187500 3.937500 -6.712797 126 151 180 
5.250000 3.937500 -6.712797 122 149 179 
5.312500 3.937500 -6.712797 121 148 179 
5.375000 3.937500 -6.712797 121 148 178 
5.437500 3.937500 -6.712797 120 147 177 
5.500000 3.937500 -6.712797 120 147 176 
5.562500 3.937500 -6.712797 121 147 175 
5.625000 3.937500 -6.712797 121 147 175 
5.687500 3.937500 -6.712797 121 146 174 
5.750000 3.937500 -6.712797 119 144 173 
5.812500 3.937500 -6.712797 119 144 172 
5.875000 3.937500 -6.712797 119 144 172 
5.937500 3.937500 -6.712797 119 143 171 
6.000000 3.937500 -6.712797 119 143 170 
6.062500 3.937500 -6.712797 119 142 170 
6.125000 3.937500 -6.712797 118 141 168 
6.187500 3.937500 -6.712797 117 140 167 
6.250000 3.937500 -6.712797 115 139 167 
6.312500 3.937500 -6.712797 113 137 167 
6.375000 3.937500 -6.712797 110 136 166 
6.437500 3.937500 -6.712797 110 135 166 
6.500000 3.937500 -6.712797 109 134 164 
6.562500 3.937500 -6.712797 108 133 163 
6.625000 3.937500 -6.712797 108 133 163 
6.687500 3.937500 -6.712797 106 132 162 
6.750000 3.937500 -6.712797 106 131 161 
6.812500 3.937500 -6.712797 106 131 160 
6.875000 3.937500 -6.712797 105 130 160 
6.937500 3.937500 -6.712797 104 129 158 
7.000000 3.937500 -6.712797 104 129 158 
7.062500 3.937500 -6.712797 102 127 156 
7.125000 3.937500 -6.712797 101 127 155 
7.187500 3.937500 -6.712797 101 126 155 
7.250000 3.937500 -6.712797 99 125 154 
7.312500 3.937500 -6.712797 99 125 154 
7.375000 3.937500 -6.712797 98 125 153 
7.437500 3.937500 -6.712797 98 122 152 
7.500000 3.937500 -6.712797 96 122 151 
7.562500 3.937500 -6.712797 96 121 150 
-0.687500 3.875000 -6.712797 153 179 206 
-0.625000 3.875000 -6.712797 153 179 206 
-0.562500 3.875000 -6.712797 154 180 206 
-0.500000 3.875000 -6.712797 154 180 207 
-0.437500 3.875000 -6.712797 154 180 207 
-0.375000 3.875000 -6.712797 154 180 207 
-0.049689 3.080745 -5.336882 154 181 209 
0.000000 3.071208 -5.320359 154 181 209 
0.049536 3.071208 -5.320359 154 181 209 
0.099071 3.071208 -5.320359 154 181 209 
0.148607 3.071208 -5.320359 153 181 209 
0.937500 3.875000 -6.712797 152 180 208 
1.000000 3.875000 -6.712797 152 180 208 
1.062500 3.875000 -6.712797 152 180 208 
1.125000 3.875000 -6.712797 151 179 208 
1.187500 3.875000 -6.712797 151 179 207 
1.250000 3.875000 -6.712797 151 179 208 
1.312500 3.875000 -6.712797 151 179 207 
1.375000 3.875000 -6.712797 151 178 206 
1.437500 3.875000 -6.712797 150 178 206 
1.500000 3.875000 -6.712797 150 178 206 
1.562500 3.875000 -6.712797 150 178 206 
1.625000 3.875000 -6.712797 151 178 205 
1.687500 3.875000 -6.712797 151 178 205 
1.750000 3.875000 -6.712797 151 178 205 
1.812500 3.875000 -6.712797 150 177 204 
1.875000 3.875000 -6.712797 150 177 205 
1.937500 3.875000 -6.712797 150 176 204 
2.000000 3.875000 -6.712797 149 176 203 
2.062500 3.875000 -6.712797 149 175 203 
2.125000 3.875000 -6.712797 149 175 203 
2.187500 3.875000 -6.712797 149 175 203 
2.250000 3.875000 -6.712797 148 175 203 
2.312500 3.875000 -6.712797 148 175 203 
2.375000 3.875000 -6.712797 148 175 202 
2.437500 3.875000 -6.712797 148 174 202 
2.500000 3.875000 -6.712797 146 173 202 
2.562500 3.875000 -6.712797 146 173 202 
2.625000 3.875000 -6.712797 145 173 202 
2.687500 3.875000 -6.712797 144 172 201 
2.750000 3.875000 -6.712797 143 172 201 
2.812500 3.875000 -6.712797 142 171 201 
2.875000 3.875000 -6.712797 141 170 200 
2.937500 3.875000 -6.712797 141 170 201 
3.000000 3.875000 -6.712797 141 170 200 
3.062500 3.875000 -6.712797 140 170 200 
3.125000 3.875000 -6.712797 139 169 199 
3.187500 3.875000 -6.712797 139 169 199 
3.250000 3.875000 -6.712797 139 169 199 
3.312500 3.875000 -6.712797 139 168 199 
3.375000 3.875000 -6.712797 137 167 199 
3.437500 3.875000 -6.712797 137 167 199 
3.500000 3.875000 -6.712797 137 167 198 
3.562500 3.875000 -6.712797 137 167 197 
3.625000 3.875000 -6.712797 136 166 197 
3.687500 3.875000 -6.712797 136 166 197 
3.750000 3.875000 -6.712797 136 166 197 
3.812500 3.875000 -6.712797 135 165 196 
3.875000 3.875000 -6.712797 134 164 196 
3.937500 3.875000 -6.712797 133 163 195 
4.000000 3.875000 -6.712797 133 163 194 
4.062500 3.875000 -6.712797 133 162 193 
4.125000 3.875000 -6.712797 132 161 193 
4.187500 3.875000 -6.712797 131 160 192 
4.250000 3.875000 -6.712797 131 160 192 
4.312500 3.875000 -6.712797 131 160 191 
4.375000 3.875000 -6.712797 131 159 190 
4.437500 3.875000 -6.712797 131 158 189 
4.500000 3.875000 -6.712797 131 158 188 
4.562500 3.875000 -6.712797 131 158 187 
4.625000 3.875000 -6.712797 129 156 186 
4.687500 3.875000 -6.712797 130 156 186 
5.000000 3.875000 -6.712797 131 155 182 
5.062500 3.875000 -6.712797 131 155 181 
5.125000 3.875000 -6.712797 129 153 180 
5.187500 3.875000 -6.712797 126 151 180 
5.250000 3.875000 -6.712797 124 150 180 
5.312500 3.875000 -6.712797 122 149 180 
5.375000 3.875000 -6.712797 122 149 179 
5.437500 3.875000 -6.712797 121 148 178 
5.500000 3.875000 -6.712797 121 148 177 
5.562500 3.875000 -6.712797 121 147 176 
5.625000 3.875000 -6.712797 121 147 175 
5.687500 3.875000 -6.712797 121 147 175 
5.750000 3.875000 -6.712797 120 146 174 
5.812500 3.875000 -6.712797 121 146 173 
5.875000 3.875000 -6.712797 121 145 173 
5.937500 3.875000 -6.712797 120 144 172 
6.000000 3.875000 -6.712797 119 143 170 
6.062500 3.875000 -6.712797 119 142 170 
6.125000 3.875000 -6.712797 117 141 169 
6.187500 3.875000 -6.712797 115 140 168 
6.250000 3.875000 -6.712797 114 139 167 
6.312500 3.875000 -6.712797 112 138 167 
6.375000 3.875000 -6.712797 110 137 167 
6.437500 3.875000 -6.712797 110 136 166 
6.500000 3.875000 -6.712797 109 135 165 
6.562500 3.875000 -6.712797 108 134 164 
6.625000 3.875000 -6.712797 108 133 163 
6.687500 3.875000 -6.712797 106 133 163 
6.750000 3.875000 -6.712797 106 132 162 
6.812500 3.875000 -6.712797 106 131 161 
6.875000 3.875000 -6.712797 105 130 160 
6.937500 3.875000 -6.712797 104 130 159 
7.000000 3.875000 -6.712797 104 130 159 
7.062500 3.875000 -6.712797 102 128 158 
7.125000 3.875000 -6.712797 102 128 157 
7.187500 3.875000 -6.712797 101 127 156 
7.250000 3.875000 -6.712797 101 127 155 
7.312500 3.875000 -6.712797 99 125 155 
7.375000 3.875000 -6.712797 98 125 154 
7.437500 3.875000 -6.712797 98 124 153 
7.500000 3.875000 -6.712797 98 124 153 
7.562500 3.875000 -6.712797 96 122 151 
-0.625000 3.812500 -6.712797 155 180 206 
-0.562500 3.812500 -6.712797 155 180 207 
-0.500000 3.812500 -6.712797 155 180 207 
-0.437500 3.812500 -6.712797 155 181 208 
-0.099379 3.031056 -5.336882 155 181 208 
-0.049536 3.021672 -5.320359 155 182 209 
0.000000 3.012346 -5.303938 155 182 209 
0.049080 2.993865 -5.271399 155 182 209 
0.098160 2.993865 -5.271399 155 182 209 
0.147239 2.993865 -5.271399 155 182 209 
0.195122 2.975610 -5.239256 155 182 209 
0.242424 2.957576 -5.207503 155 182 209 
0.290909 2.957576 -5.207503 155 182 209 
0.339394 2.957576 -5.207503 155 182 209 
0.384384 2.930931 -5.160589 155 182 208 
1.062500 3.812500 -6.712797 153 180 208 
1.125000 3.812500 -6.712797 153 180 208 
1.187500 3.812500 -6.712797 152 180 208 
1.250000 3.812500 -6.712797 152 180 208 
1.312500 3.812500 -6.712797 152 180 208 
1.375000 3.812500 -6.712797 152 180 208 
1.437500 3.812500 -6.712797 152 180 207 
1.500000 3.812500 -6.712797 151 179 206 
1.562500 3.812500 -6.712797 151 178 206 
1.625000 3.812500 -6.712797 152 178 206 
1.687500 3.812500 -6.712797 152 178 205 
1.750000 3.812500 -6.712797 152 178 205 
1.812500 3.812500 -6.712797 152 178 205 
1.875000 3.812500 -6.712797 151 178 205 
1.937500 3.812500 -6.712797 152 178 205 
2.000000 3.812500 -6.712797 152 178 205 
2.062500 3.812500 -6.712797 151 177 204 
2.125000 3.812500 -6.712797 151 177 204 
2.187500 3.812500 -6.712797 151 176 203 
2.250000 3.812500 -6.712797 150 176 203 
2.312500 3.812500 -6.712797 150 175 203 
2.375000 3.812500 -6.712797 149 175 203 
2.437500 3.812500 -6.712797 148 175 203 
2.500000 3.812500 -6.712797 148 175 203 
2.562500 3.812500 -6.712797 147 174 202 
2.625000 3.812500 -6.712797 147 173 202 
2.687500 3.812500 -6.712797 146 173 202 
2.750000 3.812500 -6.712797 145 173 202 
2.812500 3.812500 -6.712797 145 173 202 
2.875000 3.812500 -6.712797 144 173 202 
2.937500 3.812500 -6.712797 143 172 202 
3.000000 3.812500 -6.712797 143 171 201 
3.062500 3.812500 -6.712797 143 171 200 
3.125000 3.812500 -6.712797 142 170 200 
3.187500 3.812500 -6.712797 141 170 200 
3.250000 3.812500 -6.712797 140 169 199 
3.312500 3.812500 -6.712797 140 170 200 
3.375000 3.812500 -6.712797 139 169 199 
3.437500 3.812500 -6.712797 139 168 199 
3.500000 3.812500 -6.712797 138 168 199 
3.562500 3.812500 -6.712797 138 167 199 
3.625000 3.812500 -6.712797 138 167 198 
3.687500 3.812500 -6.712797 137 167 197 
3.750000 3.812500 -6.712797 137 167 197 
3.812500 3.812500 -6.712797 136 166 197 
3.875000 3.812500 -6.712797 135 165 196 
3.937500 3.812500 -6.712797 135 165 196 
4.000000 3.812500 -6.712797 135 164 195 
4.062500 3.812500 -6.712797 134 164 195 
4.125000 3.812500 -6.712797 133 163 194 
4.187500 3.812500 -6.712797 133 163 193 
4.250000 3.812500 -6.712797 133 162 192 
4.312500 3.812500 -6.712797 132 161 192 
4.375000 3.812500 -6.712797 132 160 190 
4.437500 3.812500 -6.712797 132 160 190 
4.500000 3.812500 -6.712797 131 159 189 
4.562500 3.812500 -6.712797 130 158 188 
4.625000 3.812500 -6.712797 129 157 187 
4.687500 3.812500 -6.712797 130 157 187 
4.750000 3.812500 -6.712797 129 156 186 
4.812500 3.812500 -6.712797 129 156 186 
4.875000 3.812500 -6.712797 130 155 184 
4.937500 3.812500 -6.712797 130 155 184 
5.000000 3.812500 -6.712797 130 155 182 
5.062500 3.812500 -6.712797 130 155 182 
5.125000 3.812500 -6.712797 128 153 181 
5.187500 3.812500 -6.712797 127 152 181 
5.250000 3.812500 -6.712797 126 151 180 
5.312500 3.812500 -6.712797 125 151 180 
5.375000 3.812500 -6.712797 124 150 180 
5.437500 3.812500 -6.712797 124 149 179 
5.500000 3.812500 -6.712797 124 149 178 
5.562500 3.812500 -6.712797 122 148 178 
5.625000 3.812500 -6.712797 122 148 177 
5.687500 3.812500 -6.712797 121 147 175 
5.750000 3.812500 -6.712797 121 147 175 
5.812500 3.812500 -6.712797 121 146 174 
5.875000 3.812500 -6.712797 120 145 173 
5.937500 3.812500 -6.712797 121 145 173 
6.000000 3.812500 -6.712797 120 144 172 
6.062500 3.812500 -6.712797 118 143 170 
6.125000 3.812500 -6.712797 118 142 170 
6.187500 3.812500 -6.712797 115 141 169 
6.250000 3.812500 -6.712797 115 140 169 
6.312500 3.812500 -6.712797 113 139 168 
6.375000 3.812500 -6.712797 112 138 168 
6.437500 3.812500 -6.712797 112 137 167 
6.500000 3.812500 -6.712797 109 136 166 
6.562500 3.812500 -6.712797 109 135 165 
6.625000 3.812500 -6.712797 109 135 165 
6.687500 3.812500 -6.712797 108 134 163 
6.750000 3.812500 -6.712797 108 133 163 
6.812500 3.812500 -6.712797 108 133 162 
6.875000 3.812500 -6.712797 106 132 161 
6.937500 3.812500 -6.712797 105 131 160 
7.000000 3.812500 -6.712797 105 130 160 
7.062500 3.812500 -6.712797 104 130 159 
7.125000 3.812500 -6.712797 102 129 158 
7.187500 3.812500 -6.712797 102 129 158 
7.250000 3.812500 -6.712797 101 128 157 
7.312500 3.812500 -6.712797 99 127 156 
7.375000 3.812500 -6.712797 101 127 155 
7.437500 3.812500 -6.712797 99 125 155 
7.500000 3.812500 -6.712797 99 125 154 
7.562500 3.812500 -6.712797 98 124 153 
-0.562500 3.750000 -6.712797 156 181 207 
-0.500000 3.750000 -6.712797 158 181 208 
-0.437500 3.750000 -6.712797 155 181 208 
-0.099071 2.972136 -5.320359 155 182 209 
-0.049383 2.962963 -5.303938 156 182 209 
0.000000 2.953846 -5.287619 156 183 209 
0.049080 2.944785 -5.271399 156 182 209 
0.097859 2.935780 -5.255279 156 182 209 
0.145455 2.909091 -5.207503 156 182 209 
0.193353 2.900302 -5.191771 157 183 209 
0.240240 2.882883 -5.160589 156 182 209 
0.288288 2.882883 -5.160589 157 182 209 
0.335329 2.874252 -5.145138 157 182 209 
0.383234 2.874252 -5.145138 156 182 209 
0.431138 2.874252 -5.145138 156 182 209 
1.187500 3.750000 -6.712797 153 181 209 
1.250000 3.750000 -6.712797 153 181 209 
1.312500 3.750000 -6.712797 154 181 209 
1.375000 3.750000 -6.712797 153 180 208 
1.437500 3.750000 -6.712797 153 180 208 
1.500000 3.750000 -6.712797 153 180 208 
1.562500 3.750000 -6.712797 153 180 207 
1.625000 3.750000 -6.712797 154 180 206 
1.687500 3.750000 -6.712797 155 180 206 
1.750000 3.750000 -6.712797 154 180 206 
1.812500 3.750000 -6.712797 154 179 206 
1.875000 3.750000 -6.712797 154 179 206 
1.937500 3.750000 -6.712797 153 179 206 
2.000000 3.750000 -6.712797 153 178 205 
2.062500 3.750000 -6.712797 152 178 205 
2.125000 3.750000 -6.712797 152 178 205 
2.187500 3.750000 -6.712797 152 178 204 
2.250000 3.750000 -6.712797 152 178 204 
2.312500 3.750000 -6.712797 151 177 204 
2.375000 3.750000 -6.712797 149 176 203 
2.437500 3.750000 -6.712797 150 176 203 
2.500000 3.750000 -6.712797 149 175 203 
2.562500 3.750000 -6.712797 148 175 202 
2.625000 3.750000 -6.712797 148 175 203 
2.687500 3.750000 -6.712797 148 175 203 
2.750000 3.750000 -6.712797 147 174 202 
2.812500 3.750000 -6.712797 146 173 202 
2.875000 3.750000 -6.712797 145 173 202 
2.937500 3.750000 -6.712797 144 173 202 
3.000000 3.750000 -6.712797 144 172 202 
3.062500 3.750000 -6.712797 144 172 201 
3.125000 3.750000 -6.712797 144 172 200 
3.187500 3.750000 -6.712797 143 171 200 
3.250000 3.750000 -6.712797 142 171 200 
3.312500 3.750000 -6.712797 141 170 200 
3.375000 3.750000 -6.712797 141 170 200 
3.437500 3.750000 -6.712797 141 170 200 
3.500000 3.750000 -6.712797 140 170 200 
3.562500 3.750000 -6.712797 140 170 199 
3.625000 3.750000 -6.712797 139 169 199 
3.687500 3.750000 -6.712797 138 168 199 
3.750000 3.750000 -6.712797 138 167 198 
3.812500 3.750000 -6.712797 138 167 197 
3.875000 3.750000 -6.712797 137 167 197 
3.937500 3.750000 -6.712797 137 166 197 
4.000000 3.750000 -6.712797 136 165 196 
4.062500 3.750000 -6.712797 136 165 196 
4.125000 3.750000 -6.712797 134 163 194 
4.187500 3.750000 -6.712797 134 163 194 
4.250000 3.750000 -6.712797 134 163 194 
4.312500 3.750000 -6.712797 133 162 192 
4.375000 3.750000 -6.712797 132 161 192 
4.437500 3.750000 -6.712797 132 160 191 
4.500000 3.750000 -6.712797 132 160 190 
4.562500 3.750000 -6.712797 131 159 189 
4.625000 3.750000 -6.712797 131 159 189 
4.687500 3.750000 -6.712797 130 158 188 
4.750000 3.750000 -6.712797 130 157 187 
4.812500 3.750000 -6.712797 130 156 186 
4.875000 3.750000 -6.712797 130 156 185 
4.937500 3.750000 -6.712797 130 155 184 
5.000000 3.750000 -6.712797 130 155 184 
5.062500 3.750000 -6.712797 129 155 183 
5.125000 3.750000 -6.712797 128 154 182 
5.187500 3.750000 -6.712797 128 154 182 
5.250000 3.750000 -6.712797 127 153 182 
5.312500 3.750000 -6.712797 126 152 180 
5.375000 3.750000 -6.712797 126 151 180 
5.437500 3.750000 -6.712797 126 151 179 
5.500000 3.750000 -6.712797 124 149 178 
5.562500 3.750000 -6.712797 122 148 178 
5.625000 3.750000 -6.712797 122 148 178 
5.687500 3.750000 -6.712797 121 148 176 
5.750000 3.750000 -6.712797 121 147 175 
5.812500 3.750000 -6.712797 121 147 175 
5.875000 3.750000 -6.712797 121 146 173 
5.937500 3.750000 -6.712797 121 146 173 
6.000000 3.750000 -6.712797 120 145 173 
6.062500 3.750000 -6.712797 119 144 172 
6.125000 3.750000 -6.712797 118 143 171 
6.187500 3.750000 -6.712797 117 142 170 
6.250000 3.750000 -6.712797 115 141 170 
6.312500 3.750000 -6.712797 114 140 170 
6.375000 3.750000 -6.712797 113 139 169 
6.437500 3.750000 -6.712797 112 139 168 
6.500000 3.750000 -6.712797 112 138 168 
6.562500 3.750000 -6.712797 110 137 167 
6.625000 3.750000 -6.712797 109 135 165 
6.687500 3.750000 -6.712797 108 135 164 
6.750000 3.750000 -6.712797 108 134 164 
6.812500 3.750000 -6.712797 108 133 163 
6.875000 3.750000 -6.712797 108 133 163 
6.937500 3.750000 -6.712797 106 132 162 
7.000000 3.750000 -6.712797 105 132 161 
7.062500 3.750000 -6.712797 104 130 160 
7.125000 3.750000 -6.712797 104 130 160 
7.187500 3.750000 -6.712797 102 129 159 
7.250000 3.750000 -6.712797 102 129 159 
7.312500 3.750000 -6.712797 101 128 158 
7.375000 3.750000 -6.712797 101 127 156 
7.437500 3.750000 -6.712797 99 126 155 
7.500000 3.750000 -6.712797 99 126 155 
7.562500 3.750000 -6.712797 98 125 154 
-0.049536 2.922601 -5.320359 157 182 209 
0.000000 2.913580 -5.303938 157 183 209 
0.049080 2.895705 -5.271399 158 183 209 
0.097561 2.878049 -5.239256 158 183 209 
0.145015 2.851964 -5.191771 158 184 209 
0.191045 2.817910 -5.129779 158 183 209 
0.238095 2.809524 -5.114512 158 184 209 
0.285714 2.809524 -5.114512 159 184 209 
0.333333 2.809524 -5.114512 158 183 209 
0.380952 2.809524 -5.114512 158 183 209 
0.428571 2.809524 -5.114512 158 184 209 
0.476190 2.809524 -5.114512 157 184 209 
0.347826 1.865613 -3.396198 157 183 209 
0.378698 1.861933 -3.389499 157 184 210 
1.250000 3.687500 -6.712797 155 182 209 
1.312500 3.687500 -6.712797 155 182 209 
1.375000 3.687500 -6.712797 154 181 208 
1.437500 3.687500 -6.712797 154 181 208 
1.500000 3.687500 -6.712797 155 181 208 
1.562500 3.687500 -6.712797 154 180 207 
1.625000 3.687500 -6.712797 155 180 207 
1.687500 3.687500 -6.712797 155 181 207 
1.750000 3.687500 -6.712797 155 180 206 
1.812500 3.687500 -6.712797 155 180 206 
1.875000 3.687500 -6.712797 155 180 206 
1.937500 3.687500 -6.712797 154 180 206 
2.000000 3.687500 -6.712797 154 179 205 
2.062500 3.687500 -6.712797 154 179 205 
2.125000 3.687500 -6.712797 154 179 205 
2.187500 3.687500 -6.712797 153 178 205 
2.250000 3.687500 -6.712797 153 178 205 
2.312500 3.687500 -6.712797 152 178 205 
2.375000 3.687500 -6.712797 150 177 204 
2.437500 3.687500 -6.712797 151 177 204 
2.500000 3.687500 -6.712797 151 177 204 
2.562500 3.687500 -6.712797 150 176 203 
2.625000 3.687500 -6.712797 149 175 203 
2.687500 3.687500 -6.712797 148 175 203 
2.750000 3.687500 -6.712797 148 175 202 
2.812500 3.687500 -6.712797 147 174 202 
2.875000 3.687500 -6.712797 147 174 203 
2.937500 3.687500 -6.712797 147 174 203 
3.000000 3.687500 -6.712797 147 174 202 
3.062500 3.687500 -6.712797 146 173 202 
3.125000 3.687500 -6.712797 144 173 201 
3.187500 3.687500 -6.712797 144 173 201 
3.250000 3.687500 -6.712797 143 172 201 
3.312500 3.687500 -6.712797 144 172 202 
3.375000 3.687500 -6.712797 142 171 200 
3.437500 3.687500 -6.712797 142 171 200 
3.500000 3.687500 -6.712797 141 170 200 
3.562500 3.687500 -6.712797 141 170 200 
3.625000 3.687500 -6.712797 140 170 199 
3.687500 3.687500 -6.712797 140 169 199 
3.750000 3.687500 -6.712797 139 169 199 
3.812500 3.687500 -6.712797 139 168 198 
3.875000 3.687500 -6.712797 138 167 197 
3.937500 3.687500 -6.712797 138 167 197 
4.000000 3.687500 -6.712797 137 167 197 
4.062500 3.687500 -6.712797 137 167 196 
4.125000 3.687500 -6.712797 136 165 196 
4.187500 3.687500 -6.712797 135 164 195 
4.250000 3.687500 -6.712797 135 164 194 
4.312500 3.687500 -6.712797 135 164 194 
4.375000 3.687500 -6.712797 134 163 194 
4.437500 3.687500 -6.712797 133 162 192 
4.500000 3.687500 -6.712797 133 161 191 
4.562500 3.687500 -6.712797 133 160 190 
4.625000 3.687500 -6.712797 132 160 189 
4.687500 3.687500 -6.712797 132 160 189 
4.750000 3.687500 -6.712797 131 158 188 
4.812500 3.687500 -6.712797 131 158 186 
4.875000 3.687500 -6.712797 131 157 186 
4.937500 3.687500 -6.712797 130 157 186 
5.000000 3.687500 -6.712797 129 155 184 
5.062500 3.687500 -6.712797 128 155 184 
5.125000 3.687500 -6.712797 128 155 184 
5.187500 3.687500 -6.712797 128 154 182 
5.250000 3.687500 -6.712797 127 153 182 
5.312500 3.687500 -6.712797 127 152 181 
5.375000 3.687500 -6.712797 127 152 180 
5.437500 3.687500 -6.712797 126 151 180 
5.500000 3.687500 -6.712797 126 151 180 
5.562500 3.687500 -6.712797 125 150 178 
5.625000 3.687500 -6.712797 124 149 178 
5.687500 3.687500 -6.712797 124 148 177 
5.750000 3.687500 -6.712797 122 148 175 
5.812500 3.687500 -6.712797 124 148 175 
5.875000 3.687500 -6.712797 124 148 175 
5.937500 3.687500 -6.712797 122 147 174 
6.000000 3.687500 -6.712797 121 146 173 
6.062500 3.687500 -6.712797 120 145 173 
6.125000 3.687500 -6.712797 119 144 172 
6.187500 3.687500 -6.712797 118 143 171 
6.250000 3.687500 -6.712797 117 142 171 
6.312500 3.687500 -6.712797 114 141 170 
6.375000 3.687500 -6.712797 113 140 170 
6.875000 3.687500 -6.712797 108 134 163 
6.937500 3.687500 -6.712797 106 133 163 
7.000000 3.687500 -6.712797 106 132 163 
7.062500 3.687500 -6.712797 106 132 162 
7.125000 3.687500 -6.712797 105 132 161 
7.187500 3.687500 -6.712797 104 131 160 
7.250000 3.687500 -6.712797 104 130 160 
7.312500 3.687500 -6.712797 104 130 159 
7.375000 3.687500 -6.712797 102 128 158 
7.437500 3.687500 -6.712797 101 127 156 
7.500000 3.687500 -6.712797 101 127 155 
7.562500 3.687500 -6.712797 99 126 155 
0.145015 2.803625 -5.191771 159 184 209 
0.190476 2.761905 -5.114512 160 184 209 
0.237389 2.753709 -5.099336 160 184 209 
0.284866 2.753709 -5.099336 160 184 209 
0.332344 2.753709 -5.099336 160 184 210 
0.380952 2.761905 -5.114512 160 184 209 
0.428571 2.761905 -5.114512 160 184 210 
0.316832 1.837624 -3.402923 159 184 210 
0.347140 1.830375 -3.389499 159 184 210 
0.376471 1.819608 -3.369561 158 184 210 
0.407045 1.816047 -3.362967 158 184 210 
0.437500 1.812500 -3.356399 157 184 210 
1.312500 3.625000 -6.712797 156 183 209 
1.375000 3.625000 -6.712797 155 182 209 
1.687500 3.625000 -6.712797 156 182 207 
1.750000 3.625000 -6.712797 157 182 206 
1.812500 3.625000 -6.712797 157 181 206 
1.875000 3.625000 -6.712797 156 181 206 
1.937500 3.625000 -6.712797 155 180 206 
2.000000 3.625000 -6.712797 155 180 206 
2.062500 3.625000 -6.712797 155 180 206 
2.125000 3.625000 -6.712797 155 180 206 
2.187500 3.625000 -6.712797 154 179 205 
2.250000 3.625000 -6.712797 154 179 205 
2.312500 3.625000 -6.712797 153 178 205 
2.375000 3.625000 -6.712797 152 178 205 
2.437500 3.625000 -6.712797 152 178 205 
2.500000 3.625000 -6.712797 152 178 205 
2.562500 3.625000 -6.712797 150 177 204 
2.625000 3.625000 -6.712797 150 177 204 
2.687500 3.625000 -6.712797 149 176 203 
2.750000 3.625000 -6.712797 149 176 203 
2.812500 3.625000 -6.712797 148 175 203 
2.875000 3.625000 -6.712797 148 175 203 
2.937500 3.625000 -6.712797 148 175 203 
3.000000 3.625000 -6.712797 147 174 202 
3.062500 3.625000 -6.712797 147 174 202 
3.125000 3.625000 -6.712797 147 174 202 
3.187500 3.625000 -6.712797 145 173 202 
3.250000 3.625000 -6.712797 145 173 202 
3.312500 3.625000 -6.712797 145 173 202 
3.375000 3.625000 -6.712797 144 173 202 
3.437500 3.625000 -6.712797 144 173 201 
3.500000 3.625000 -6.712797 143 171 200 
3.562500 3.625000 -6.712797 143 172 200 
3.625000 3.625000 -6.712797 142 170 200 
3.687500 3.625000 -6.712797 141 170 199 
3.750000 3.625000 -6.712797 141 170 199 
3.812500 3.625000 -6.712797 141 170 199 
3.875000 3.625000 -6.712797 140 169 199 
3.937500 3.625000 -6.712797 140 168 198 
4.000000 3.625000 -6.712797 139 168 197 
4.062500 3.625000 -6.712797 139 167 197 
4.125000 3.625000 -6.712797 138 167 196 
4.187500 3.625000 -6.712797 137 166 196 
4.250000 3.625000 -6.712797 136 165 195 
4.312500 3.625000 -6.712797 137 166 195 
4.375000 3.625000 -6.712797 135 164 194 
4.437500 3.625000 -6.712797 135 163 192 
4.500000 3.625000 -6.712797 135 163 192 
4.562500 3.625000 -6.712797 134 161 190 
4.625000 3.625000 -6.712797 134 161 190 
4.687500 3.625000 -6.712797 133 160 189 
4.750000 3.625000 -6.712797 132 159 189 
4.812500 3.625000 -6.712797 132 159 188 
4.875000 3.625000 -6.712797 131 158 188 
4.937500 3.625000 -6.712797 130 157 186 
5.000000 3.625000 -6.712797 130 157 186 
5.062500 3.625000 -6.712797 129 156 186 
5.125000 3.625000 -6.712797 129 155 184 
5.187500 3.625000 -6.712797 129 155 184 
5.250000 3.625000 -6.712797 128 154 183 
5.312500 3.625000 -6.712797 128 154 182 
5.375000 3.625000 -6.712797 127 153 181 
5.437500 3.625000 -6.712797 127 152 180 
5.500000 3.625000 -6.712797 127 152 180 
5.562500 3.625000 -6.712797 125 151 179 
5.625000 3.625000 -6.712797 125 150 178 
5.687500 3.625000 -6.712797 125 149 177 
5.750000 3.625000 -6.712797 125 149 176 
5.812500 3.625000 -6.712797 125 148 175 
5.875000 3.625000 -6.712797 125 148 175 
5.937500 3.625000 -6.712797 124 148 175 
6.000000 3.625000 -6.712797 122 147 174 
6.062500 3.625000 -6.712797 121 146 173 
6.125000 3.625000 -6.712797 120 145 173 
6.187500 3.625000 -6.712797 118 144 172 
6.250000 3.625000 -6.712797 117 143 172 
6.937500 3.625000 -6.712797 109 135 165 
7.000000 3.625000 -6.712797 108 134 163 
7.062500 3.625000 -6.712797 108 133 163 
7.125000 3.625000 -6.712797 106 132 162 
7.187500 3.625000 -6.712797 106 132 161 
7.250000 3.625000 -6.712797 105 131 160 
7.312500 3.625000 -6.712797 104 130 159 
7.375000 3.625000 -6.712797 104 129 158 
7.437500 3.625000 -6.712797 102 128 157 
7.500000 3.625000 -6.712797 101 127 155 
7.562500 3.625000 -6.712797 101 127 155 
0.188791 2.690265 -5.069251 160 185 209 
0.235988 2.690265 -5.069251 161 186 210 
0.283186 2.690265 -5.069251 161 186 210 
0.332344 2.706231 -5.099336 161 186 210 
0.316832 1.805941 -3.402923 160 185 210 
0.347140 1.798817 -3.389499 160 186 210 
0.375734 1.784736 -3.362967 160 186 211 
0.406250 1.781250 -3.356399 160 185 211 
0.436647 1.777778 -3.349856 159 185 211 
0.467836 1.777778 -3.349856 160 186 211 
0.499025 1.777778 -3.349856 159 186 211 
1.687500 3.562500 -6.712797 158 182 207 
1.750000 3.562500 -6.712797 159 183 207 
1.812500 3.562500 -6.712797 158 182 207 
1.875000 3.562500 -6.712797 158 182 207 
1.937500 3.562500 -6.712797 158 182 207 
2.000000 3.562500 -6.712797 157 182 206 
2.062500 3.562500 -6.712797 156 182 206 
2.125000 3.562500 -6.712797 155 180 206 
2.187500 3.562500 -6.712797 155 180 206 
2.250000 3.562500 -6.712797 155 180 206 
2.312500 3.562500 -6.712797 154 180 205 
2.375000 3.562500 -6.712797 154 179 205 
2.437500 3.562500 -6.712797 154 179 205 
2.500000 3.562500 -6.712797 153 178 205 
2.562500 3.562500 -6.712797 152 178 205 
2.625000 3.562500 -6.712797 152 178 205 
2.687500 3.562500 -6.712797 151 178 205 
2.750000 3.562500 -6.712797 151 178 205 
2.812500 3.562500 -6.712797 149 177 203 
2.875000 3.562500 -6.712797 149 176 203 
2.937500 3.562500 -6.712797 149 176 203 
3.000000 3.562500 -6.712797 148 175 203 
3.062500 3.562500 -6.712797 148 175 203 
3.125000 3.562500 -6.712797 148 175 203 
3.187500 3.562500 -6.712797 148 175 203 
3.250000 3.562500 -6.712797 147 175 203 
3.312500 3.562500 -6.712797 147 174 202 
3.375000 3.562500 -6.712797 146 174 202 
3.437500 3.562500 -6.712797 146 173 202 
3.500000 3.562500 -6.712797 145 173 201 
3.562500 3.562500 -6.712797 145 173 201 
3.625000 3.562500 -6.712797 144 172 200 
3.687500 3.562500 -6.712797 143 171 200 
3.750000 3.562500 -6.712797 143 171 200 
3.812500 3.562500 -6.712797 142 170 199 
3.875000 3.562500 -6.712797 142 170 199 
3.937500 3.562500 -6.712797 141 169 198 
4.000000 3.562500 -6.712797 140 169 198 
4.062500 3.562500 -6.712797 140 169 198 
4.125000 3.562500 -6.712797 140 168 197 
4.187500 3.562500 -6.712797 139 167 197 
4.250000 3.562500 -6.712797 138 167 196 
4.312500 3.562500 -6.712797 137 166 195 
4.375000 3.562500 -6.712797 137 165 194 
4.437500 3.562500 -6.712797 136 164 193 
4.500000 3.562500 -6.712797 136 163 192 
4.562500 3.562500 -6.712797 136 163 192 
4.625000 3.562500 -6.712797 135 162 191 
4.687500 3.562500 -6.712797 134 161 190 
4.750000 3.562500 -6.712797 134 161 190 
4.812500 3.562500 -6.712797 133 160 189 
4.875000 3.562500 -6.712797 132 160 188 
4.937500 3.562500 -6.712797 132 159 188 
5.000000 3.562500 -6.712797 131 158 187 
5.062500 3.562500 -6.712797 131 158 187 
5.125000 3.562500 -6.712797 130 156 186 
5.187500 3.562500 -6.712797 130 156 185 
5.250000 3.562500 -6.712797 129 155 184 
5.312500 3.562500 -6.712797 129 155 184 
5.375000 3.562500 -6.712797 128 154 182 
5.437500 3.562500 -6.712797 128 154 181 
5.500000 3.562500 -6.712797 127 153 180 
5.562500 3.562500 -6.712797 127 152 180 
5.625000 3.562500 -6.712797 127 152 179 
5.687500 3.562500 -6.712797 127 151 178 
5.750000 3.562500 -6.712797 127 151 177 
5.812500 3.562500 -6.712797 126 149 176 
5.875000 3.562500 -6.712797 126 149 175 
5.937500 3.562500 -6.712797 125 148 175 
6.000000 3.562500 -6.712797 124 148 175 
6.062500 3.562500 -6.712797 121 147 173 
6.125000 3.562500 -6.712797 120 146 173 
6.187500 3.562500 -6.712797 120 145 173 
6.328358 3.402985 -6.412224 114 140 170 
6.364312 3.390335 -6.388387 112 139 168 
6.520755 3.441509 -6.484816 112 138 167 
6.937500 3.562500 -6.712797 109 136 165 
7.000000 3.562500 -6.712797 109 135 164 
7.062500 3.562500 -6.712797 108 134 163 
7.125000 3.562500 -6.712797 106 133 162 
7.187500 3.562500 -6.712797 106 132 161 
7.250000 3.562500 -6.712797 105 131 160 
7.312500 3.562500 -6.712797 105 131 160 
7.375000 3.562500 -6.712797 104 130 159 
7.437500 3.562500 -6.712797 102 129 157 
7.500000 3.562500 -6.712797 104 129 157 
0.186589 2.612245 -5.010134 163 186 210 
0.234604 2.627566 -5.039519 163 186 210 
0.282353 2.635294 -5.054341 163 186 210 
0.347140 1.767258 -3.389499 162 186 211 
0.376471 1.756863 -3.369561 161 186 211 
0.406250 1.750000 -3.356399 161 186 211 
0.436647 1.746589 -3.349856 160 186 211 
0.467836 1.746589 -3.349856 160 186 211 
0.499025 1.746589 -3.349856 160 186 211 
0.529183 1.743191 -3.343339 160 186 211 
0.560311 1.743191 -3.343339 160 186 211 
1.687500 3.500000 -6.712797 159 184 208 
1.750000 3.500000 -6.712797 160 184 208 
1.812500 3.500000 -6.712797 160 183 208 
1.875000 3.500000 -6.712797 159 183 207 
1.937500 3.500000 -6.712797 159 183 208 
2.000000 3.500000 -6.712797 159 183 208 
2.062500 3.500000 -6.712797 158 182 207 
2.312500 3.500000 -6.712797 156 181 206 
2.375000 3.500000 -6.712797 155 181 206 
2.437500 3.500000 -6.712797 155 180 206 
2.500000 3.500000 -6.712797 155 180 205 
2.562500 3.500000 -6.712797 154 179 205 
2.625000 3.500000 -6.712797 153 179 205 
2.687500 3.500000 -6.712797 153 179 205 
2.750000 3.500000 -6.712797 152 178 205 
2.812500 3.500000 -6.712797 152 178 205 
2.875000 3.500000 -6.712797 151 178 204 
2.937500 3.500000 -6.712797 150 177 203 
3.000000 3.500000 -6.712797 150 177 203 
3.062500 3.500000 -6.712797 149 176 203 
3.125000 3.500000 -6.712797 149 176 203 
3.187500 3.500000 -6.712797 148 175 203 
3.250000 3.500000 -6.712797 148 175 203 
3.312500 3.500000 -6.712797 148 175 202 
3.375000 3.500000 -6.712797 147 174 202 
3.437500 3.500000 -6.712797 147 174 202 
3.500000 3.500000 -6.712797 146 173 201 
3.562500 3.500000 -6.712797 146 173 201 
3.625000 3.500000 -6.712797 145 173 200 
3.687500 3.500000 -6.712797 145 173 200 
3.750000 3.500000 -6.712797 144 172 200 
3.812500 3.500000 -6.712797 144 171 200 
3.875000 3.500000 -6.712797 143 171 199 
3.937500 3.500000 -6.712797 143 171 199 
4.000000 3.500000 -6.712797 142 170 199 
4.062500 3.500000 -6.712797 141 169 198 
4.125000 3.500000 -6.712797 140 169 197 
4.187500 3.500000 -6.712797 141 169 197 
4.250000 3.500000 -6.712797 140 168 197 
4.312500 3.500000 -6.712797 139 167 196 
4.375000 3.500000 -6.712797 138 166 194 
4.437500 3.500000 -6.712797 138 165 194 
4.500000 3.500000 -6.712797 137 164 193 
4.562500 3.500000 -6.712797 136 163 192 
4.625000 3.500000 -6.712797 136 163 192 
4.687500 3.500000 -6.712797 136 163 191 
4.750000 3.500000 -6.712797 135 162 190 
4.812500 3.500000 -6.712797 134 161 189 
4.875000 3.500000 -6.712797 134 161 190 
4.937500 3.500000 -6.712797 133 160 189 
5.000000 3.500000 -6.712797 132 159 188 
5.062500 3.500000 -6.712797 132 159 187 
5.125000 3.500000 -6.712797 132 158 186 
5.187500 3.500000 -6.712797 131 157 186 
5.250000 3.500000 -6.712797 130 156 184 
5.312500 3.500000 -6.712797 130 156 184 
5.375000 3.500000 -6.712797 129 155 183 
5.437500 3.500000 -6.712797 129 155 182 
5.500000 3.500000 -6.712797 129 155 182 
5.562500 3.500000 -6.712797 128 154 180 
5.625000 3.500000 -6.712797 127 152 179 
5.687500 3.500000 -6.712797 128 153 179 
5.750000 3.500000 -6.712797 128 152 178 
5.812500 3.500000 -6.712797 127 150 177 
5.875000 3.500000 -6.712797 127 150 177 
5.937500 3.500000 -6.712797 126 149 176 
6.000000 3.500000 -6.712797 124 148 175 
6.062500 3.500000 -6.712797 124 148 175 
6.125000 3.500000 -6.712797 121 147 174 
6.187500 3.500000 -6.712797 120 146 173 
6.268657 3.343284 -6.412224 114 141 170 
6.304833 3.330855 -6.388387 114 141 170 
6.364312 3.330855 -6.388387 113 140 169 
6.423792 3.330855 -6.388387 112 139 168 
6.937500 3.500000 -6.712797 112 137 166 
7.000000 3.500000 -6.712797 110 136 165 
7.062500 3.500000 -6.712797 109 135 163 
7.125000 3.500000 -6.712797 109 134 163 
7.187500 3.500000 -6.712797 108 133 161 
7.250000 3.500000 -6.712797 108 133 161 
7.312500 3.500000 -6.712797 106 132 160 
7.375000 3.500000 -6.712797 105 131 159 
7.437500 3.500000 -6.712797 105 130 159 
7.500000 3.500000 -6.712797 104 129 157 
0.140762 2.580645 -5.039519 167 188 209 
0.186047 2.558140 -4.995570 163 186 210 
0.232558 2.558140 -4.995570 164 188 211 
0.378698 1.735700 -3.389499 163 188 211 
0.407843 1.725490 -3.369561 162 187 211 
0.437500 1.718750 -3.356399 162 187 211 
0.467836 1.715400 -3.349856 162 187 211 
0.498054 1.712062 -3.343339 162 187 212 
0.529183 1.712062 -3.343339 162 187 212 
0.560311 1.712062 -3.343339 161 187 211 
1.750000 3.437500 -6.712797 160 184 209 
1.812500 3.437500 -6.712797 161 184 208 
1.875000 3.437500 -6.712797 161 184 208 
1.937500 3.437500 -6.712797 160 184 208 
2.000000 3.437500 -6.712797 160 184 208 
2.062500 3.437500 -6.712797 160 183 208 
2.312500 3.437500 -6.712797 158 182 206 
2.375000 3.437500 -6.712797 157 182 206 
2.437500 3.437500 -6.712797 156 182 206 
2.500000 3.437500 -6.712797 156 181 206 
2.562500 3.437500 -6.712797 155 180 206 
2.625000 3.437500 -6.712797 155 180 206 
2.687500 3.437500 -6.712797 154 180 206 
2.750000 3.437500 -6.712797 153 179 205 
2.812500 3.437500 -6.712797 153 179 205 
2.875000 3.437500 -6.712797 152 178 205 
2.937500 3.437500 -6.712797 151 178 204 
3.000000 3.437500 -6.712797 151 178 204 
3.062500 3.437500 -6.712797 151 177 203 
3.125000 3.437500 -6.712797 150 177 203 
3.187500 3.437500 -6.712797 150 177 203 
3.250000 3.437500 -6.712797 150 177 203 
3.312500 3.437500 -6.712797 149 176 203 
3.375000 3.437500 -6.712797 148 175 202 
3.437500 3.437500 -6.712797 148 175 202 
3.500000 3.437500 -6.712797 148 175 202 
3.562500 3.437500 -6.712797 148 175 202 
3.625000 3.437500 -6.712797 147 174 201 
3.687500 3.437500 -6.712797 146 173 200 
3.750000 3.437500 -6.712797 146 173 200 
3.812500 3.437500 -6.712797 145 173 200 
3.875000 3.437500 -6.712797 145 172 200 
3.937500 3.437500 -6.712797 144 171 199 
4.000000 3.437500 -6.712797 144 171 199 
4.062500 3.437500 -6.712797 143 170 199 
4.125000 3.437500 -6.712797 142 170 198 
4.187500 3.437500 -6.712797 142 170 197 
4.250000 3.437500 -6.712797 142 169 197 
4.312500 3.437500 -6.712797 140 168 196 
4.375000 3.437500 -6.712797 140 167 195 
4.437500 3.437500 -6.712797 139 166 194 
4.500000 3.437500 -6.712797 138 166 193 
4.562500 3.437500 -6.712797 138 165 193 
4.625000 3.437500 -6.712797 137 164 192 
4.687500 3.437500 -6.712797 137 163 192 
4.750000 3.437500 -6.712797 136 163 190 
4.812500 3.437500 -6.712797 136 163 190 
4.875000 3.437500 -6.712797 135 162 190 
4.937500 3.437500 -6.712797 134 161 189 
5.000000 3.437500 -6.712797 133 160 189 
5.062500 3.437500 -6.712797 133 160 188 
5.125000 3.437500 -6.712797 133 160 187 
5.187500 3.437500 -6.712797 132 158 186 
5.250000 3.437500 -6.712797 132 158 186 
5.312500 3.437500 -6.712797 131 157 185 
5.375000 3.437500 -6.712797 131 157 184 
5.437500 3.437500 -6.712797 129 155 183 
5.500000 3.437500 -6.712797 129 155 182 
5.562500 3.437500 -6.712797 129 155 182 
5.625000 3.437500 -6.712797 129 154 180 
5.687500 3.437500 -6.712797 129 153 180 
5.750000 3.437500 -6.712797 128 152 178 
5.812500 3.437500 -6.712797 128 151 178 
5.875000 3.437500 -6.712797 128 151 177 
5.937500 3.437500 -6.712797 126 150 176 
6.000000 3.437500 -6.712797 125 149 175 
6.062500 3.437500 -6.712797 125 148 175 
6.125000 3.437500 -6.712797 122 148 175 
6.187500 3.437500 -6.712797 122 148 174 
6.268657 3.283582 -6.412224 117 143 171 
6.328358 3.283582 -6.412224 115 142 170 
6.364312 3.271375 -6.388387 114 141 170 
6.447761 3.283582 -6.412224 114 141 169 
6.812500 3.437500 -6.712797 113 140 168 
6.875000 3.437500 -6.712797 113 139 167 
6.937500 3.437500 -6.712797 112 137 166 
7.000000 3.437500 -6.712797 112 137 164 
7.062500 3.437500 -6.712797 112 136 163 
7.125000 3.437500 -6.712797 110 135 163 
7.187500 3.437500 -6.712797 109 133 161 
7.250000 3.437500 -6.712797 109 133 161 
7.312500 3.437500 -6.712797 106 132 160 
7.375000 3.437500 -6.712797 106 131 160 
7.437500 3.437500 -6.712797 106 131 159 
7.500000 3.437500 -6.712797 105 130 158 
0.047619 2.571429 -5.114512 165 187 210 
0.093842 2.533724 -5.039519 165 188 211 
0.139942 2.518950 -5.010134 165 188 211 
0.184971 2.497110 -4.966694 165 188 211 
0.231214 2.497110 -4.966694 166 189 211 
0.499025 1.684211 -3.349856 163 188 212 
0.529183 1.680934 -3.343339 163 189 213 
0.560311 1.680934 -3.343339 163 188 212 
1.750000 3.375000 -6.712797 161 185 209 
1.812500 3.375000 -6.712797 162 185 209 
1.875000 3.375000 -6.712797 162 185 208 
1.937500 3.375000 -6.712797 162 185 208 
2.000000 3.375000 -6.712797 162 185 208 
2.312500 3.375000 -6.712797 160 183 207 
2.375000 3.375000 -6.712797 159 183 207 
2.437500 3.375000 -6.712797 158 182 206 
2.500000 3.375000 -6.712797 157 182 206 
2.562500 3.375000 -6.712797 156 182 206 
2.625000 3.375000 -6.712797 155 181 206 
2.687500 3.375000 -6.712797 155 180 206 
2.750000 3.375000 -6.712797 155 180 206 
2.812500 3.375000 -6.712797 155 180 205 
2.875000 3.375000 -6.712797 154 180 205 
2.937500 3.375000 -6.712797 154 179 205 
3.000000 3.375000 -6.712797 154 179 205 
3.062500 3.375000 -6.712797 153 178 204 
3.125000 3.375000 -6.712797 152 178 204 
3.187500 3.375000 -6.712797 151 178 203 
3.250000 3.375000 -6.712797 151 178 203 
3.312500 3.375000 -6.712797 150 177 203 
3.375000 3.375000 -6.712797 150 176 203 
3.437500 3.375000 -6.712797 149 175 202 
3.500000 3.375000 -6.712797 148 175 202 
3.562500 3.375000 -6.712797 148 175 202 
3.625000 3.375000 -6.712797 148 174 201 
3.687500 3.375000 -6.712797 148 175 202 
3.750000 3.375000 -6.712797 148 174 201 
3.812500 3.375000 -6.712797 147 173 200 
3.875000 3.375000 -6.712797 146 173 200 
3.937500 3.375000 -6.712797 146 173 200 
4.000000 3.375000 -6.712797 145 172 199 
4.062500 3.375000 -6.712797 145 172 199 
4.125000 3.375000 -6.712797 144 171 199 
4.187500 3.375000 -6.712797 143 170 198 
4.250000 3.375000 -6.712797 143 170 197 
4.312500 3.375000 -6.712797 142 169 197 
4.375000 3.375000 -6.712797 141 168 196 
4.437500 3.375000 -6.712797 141 167 195 
4.500000 3.375000 -6.712797 140 167 194 
4.562500 3.375000 -6.712797 140 167 194 
4.625000 3.375000 -6.712797 139 166 193 
4.687500 3.375000 -6.712797 138 165 192 
4.750000 3.375000 -6.712797 138 164 192 
4.812500 3.375000 -6.712797 137 163 190 
4.875000 3.375000 -6.712797 136 163 190 
4.937500 3.375000 -6.712797 135 162 190 
5.000000 3.375000 -6.712797 135 162 189 
5.062500 3.375000 -6.712797 135 161 189 
5.125000 3.375000 -6.712797 134 160 187 
5.187500 3.375000 -6.712797 133 160 186 
5.250000 3.375000 -6.712797 133 159 186 
5.312500 3.375000 -6.712797 132 159 186 
5.375000 3.375000 -6.712797 131 157 184 
5.437500 3.375000 -6.712797 131 156 184 
5.500000 3.375000 -6.712797 131 156 183 
5.562500 3.375000 -6.712797 130 155 182 
5.625000 3.375000 -6.712797 131 155 181 
5.687500 3.375000 -6.712797 130 154 180 
5.750000 3.375000 -6.712797 130 154 179 
5.812500 3.375000 -6.712797 129 152 178 
5.875000 3.375000 -6.712797 129 152 178 
5.937500 3.375000 -6.712797 127 151 177 
6.000000 3.375000 -6.712797 127 150 176 
6.062500 3.375000 -6.712797 125 149 175 
6.125000 3.375000 -6.712797 125 149 175 
6.187500 3.375000 -6.712797 124 148 175 
6.315790 3.248120 -6.460436 118 144 171 
6.328358 3.223881 -6.412224 118 144 171 
6.388060 3.223881 -6.412224 117 143 170 
6.520755 3.260377 -6.484816 115 141 169 
6.875000 3.375000 -6.712797 114 139 166 
6.937500 3.375000 -6.712797 114 138 165 
7.000000 3.375000 -6.712797 113 137 163 
7.062500 3.375000 -6.712797 113 136 163 
7.125000 3.375000 -6.712797 112 135 162 
7.187500 3.375000 -6.712797 110 135 161 
7.250000 3.375000 -6.712797 110 134 160 
7.312500 3.375000 -6.712797 109 133 160 
7.375000 3.375000 -6.712797 108 133 160 
7.437500 3.375000 -6.712797 106 131 159 
7.500000 3.375000 -6.712797 106 131 158 
0.000000 2.523809 -5.114512 167 189 211 
0.047198 2.501475 -5.069251 167 189 211 
0.093842 2.486804 -5.039519 167 189 211 
0.139535 2.465116 -4.995570 166 189 211 
0.184971 2.450867 -4.966694 167 189 211 
0.229226 2.429799 -4.924000 167 189 211 
0.274286 2.422857 -4.909932 167 190 212 
0.529183 1.649805 -3.343339 163 189 212 
0.560311 1.649805 -3.343339 163 189 212 
1.812500 3.312500 -6.712797 163 186 209 
1.875000 3.312500 -6.712797 163 186 209 
2.375000 3.312500 -6.712797 160 184 208 
2.437500 3.312500 -6.712797 160 184 208 
2.500000 3.312500 -6.712797 158 182 207 
2.562500 3.312500 -6.712797 157 182 207 
2.625000 3.312500 -6.712797 157 182 207 
2.687500 3.312500 -6.712797 156 182 207 
2.750000 3.312500 -6.712797 155 181 206 
2.812500 3.312500 -6.712797 155 181 206 
2.875000 3.312500 -6.712797 155 181 206 
2.937500 3.312500 -6.712797 155 180 205 
3.000000 3.312500 -6.712797 155 180 205 
3.062500 3.312500 -6.712797 154 179 205 
3.125000 3.312500 -6.712797 154 179 205 
3.187500 3.312500 -6.712797 153 178 204 
3.250000 3.312500 -6.712797 152 178 203 
3.312500 3.312500 -6.712797 152 178 204 
3.375000 3.312500 -6.712797 151 177 203 
3.437500 3.312500 -6.712797 151 177 202 
3.500000 3.312500 -6.712797 151 177 203 
3.562500 3.312500 -6.712797 150 176 202 
3.625000 3.312500 -6.712797 149 175 202 
3.687500 3.312500 -6.712797 148 175 202 
3.750000 3.312500 -6.712797 148 175 201 
3.812500 3.312500 -6.712797 148 174 201 
3.875000 3.312500 -6.712797 148 174 200 
3.937500 3.312500 -6.712797 148 174 200 
4.000000 3.312500 -6.712797 147 173 200 
4.062500 3.312500 -6.712797 146 173 199 
4.125000 3.312500 -6.712797 145 172 199 
4.187500 3.312500 -6.712797 145 171 199 
4.250000 3.312500 -6.712797 144 170 197 
4.312500 3.312500 -6.712797 144 170 197 
4.375000 3.312500 -6.712797 143 170 196 
4.437500 3.312500 -6.712797 142 168 195 
4.500000 3.312500 -6.712797 142 168 195 
4.562500 3.312500 -6.712797 141 167 194 
4.625000 3.312500 -6.712797 140 167 193 
4.687500 3.312500 -6.712797 140 166 193 
4.750000 3.312500 -6.712797 139 165 192 
4.812500 3.312500 -6.712797 138 165 192 
4.875000 3.312500 -6.712797 138 163 190 
4.937500 3.312500 -6.712797 137 163 190 
5.000000 3.312500 -6.712797 137 163 189 
5.062500 3.312500 -6.712797 137 162 189 
5.125000 3.312500 -6.712797 136 161 188 
5.187500 3.312500 -6.712797 135 160 187 
5.250000 3.312500 -6.712797 134 160 186 
5.312500 3.312500 -6.712797 134 160 186 
5.375000 3.312500 -6.712797 133 159 185 
5.437500 3.312500 -6.712797 132 158 184 
5.500000 3.312500 -6.712797 132 157 183 
5.562500 3.312500 -6.712797 132 156 182 
5.625000 3.312500 -6.712797 133 156 181 
5.687500 3.312500 -6.712797 133 155 180 
5.750000 3.312500 -6.712797 132 155 180 
5.812500 3.312500 -6.712797 131 154 178 
5.875000 3.312500 -6.712797 130 153 178 
5.937500 3.312500 -6.712797 130 153 178 
6.000000 3.312500 -6.712797 129 152 177 
6.062500 3.312500 -6.712797 127 150 176 
6.125000 3.312500 -6.712797 126 149 175 
6.187500 3.312500 -6.712797 126 149 175 
6.250000 3.312500 -6.712797 124 148 174 
6.375940 3.187970 -6.460436 119 144 171 
6.460377 3.200000 -6.484816 117 142 170 
6.875000 3.312500 -6.712797 117 140 165 
6.937500 3.312500 -6.712797 117 140 165 
7.000000 3.312500 -6.712797 115 139 164 
7.062500 3.312500 -6.712797 114 137 163 
7.125000 3.312500 -6.712797 113 136 163 
7.187500 3.312500 -6.712797 112 135 161 
7.250000 3.312500 -6.712797 110 135 160 
7.312500 3.312500 -6.712797 110 133 160 
7.375000 3.312500 -6.712797 110 134 160 
7.437500 3.312500 -6.712797 109 133 160 
7.500000 3.312500 -6.712797 108 131 158 
0.000000 2.476191 -5.114512 167 189 211 
0.047198 2.454277 -5.069251 167 189 211 
0.093842 2.439883 -5.039519 167 189 211 
0.139535 2.418605 -4.995570 168 190 211 
0.183908 2.390805 -4.938149 168 190 212 
0.228571 2.377143 -4.909932 168 190 212 
0.273504 2.370370 -4.895943 169 190 212 
0.319088 2.370370 -4.895943 169 190 213 
2.437500 3.250000 -6.712797 160 184 208 
2.500000 3.250000 -6.712797 160 184 208 
2.562500 3.250000 -6.712797 159 183 208 
2.625000 3.250000 -6.712797 159 183 208 
2.687500 3.250000 -6.712797 158 183 207 
2.750000 3.250000 -6.712797 157 182 206 
2.812500 3.250000 -6.712797 157 182 206 
